0.729917 0.365079 0.570544 
-0.555417 0.118275 -0.818086 
-0.889210 0.098784 0.437467 
0.436102 0.076023 -0.891193 
-0.988276 0.103920 -0.065092 
-0.440861 0.094788 0.888493 
0.900386 0.082603 0.417436 
0.966284 0.082913 -0.223106 
-0.873925 0.112202 -0.464716 
0.950799 0.253058 -0.155421 
0.762784 0.131655 -0.626184 
0.635660 0.135882 -0.753687 
0.782239 0.118259 0.604930 
-0.977239 0.097186 0.160982 
0.948690 0.172699 0.245714 
0.941622 0.322021 0.040236 
0.066561 0.115857 -0.986866 
0.646378 0.104487 0.749986 
0.852266 0.300485 0.418383 
0.859193 0.302319 -0.402039 
0.009118 0.094078 0.990809 
-0.947367 0.131244 -0.276775 
0.866892 0.456914 0.169904 
0.452619 0.268589 -0.845217 
0.854200 0.509004 -0.042158 
-0.909407 0.259114 0.309942 
-0.948804 0.291896 -0.074368 
0.878202 0.113074 -0.455243 
-0.905291 0.387926 0.149366 
-0.870856 0.476229 -0.082191 
-0.777175 0.133832 0.608403 
0.457532 0.110238 0.877977 
0.636019 0.745773 0.177576 
-0.849927 0.443379 -0.268400 
-0.734789 0.083547 -0.666464 
0.268952 0.106170 0.952759 
-0.816392 0.533833 0.201292 
-0.726619 0.533748 -0.422391 
0.510453 0.855010 0.027884 
-0.248235 0.111976 0.957969 
-0.773651 0.627206 -0.015724 
0.105244 0.825123 0.548126 
0.564888 0.802021 -0.174092 
-0.642583 0.443955 -0.617746 
-0.049601 0.736564 0.667847 
0.105320 0.969838 -0.199301 
0.379806 0.329623 0.860195 
-0.078897 0.988957 -0.079478 
0.289258 0.855214 0.420391 
-0.284862 0.871787 -0.387157 
-0.126518 0.136697 -0.978522 
0.512337 0.441572 -0.730966 
-0.421346 0.358309 0.826572 
0.296046 0.561412 -0.767348 
-0.315642 0.929605 0.167178 
-0.033321 0.889403 0.446358 
0.355981 0.882406 -0.292503 
0.232362 0.706417 0.663544 
0.094200 0.520348 -0.843572 
-0.683978 0.667859 0.279926 
0.105725 0.596965 0.790420 
-0.195145 0.944012 -0.249964 
-0.359899 0.831194 0.413184 
0.265211 0.371327 -0.885604 
-0.628787 0.418304 0.648791 
0.372912 0.666254 -0.639542 
-0.277827 0.440334 0.849044 
0.987736 0.106638 0.070532 
-0.760240 0.486228 0.421941 
0.693431 0.714751 0.005573 
0.009745 0.330081 -0.939193 
0.403962 0.717603 0.559818 
0.172371 0.749207 -0.633023 
0.034646 0.978051 0.183143 
-0.566137 0.261123 0.776772 
0.241043 0.145179 -0.955333 
-0.294060 0.753901 0.579672 
-0.654979 0.743223 0.104353 
0.334896 0.933542 -0.089409 
-0.454227 0.852273 -0.241020 
0.754513 0.624969 -0.180458 
-0.589427 0.619403 0.510963 
-0.704568 0.663346 -0.236032 
0.621865 0.697825 -0.343799 
-0.089678 0.533439 0.836263 
-0.710271 0.256616 -0.648248 
0.624735 0.530333 0.565289 
-0.349897 0.931889 -0.049897 
0.720786 0.520494 -0.449066 
-0.831366 0.327370 -0.438684 
-0.301885 0.496208 -0.808048 
-0.260794 0.628571 0.727158 
-0.033061 0.719036 -0.687303 
0.185711 0.937471 0.281004 
0.696883 0.366413 -0.609653 
0.578685 0.295647 0.754235 
0.487918 0.791233 0.357001 
-0.500839 0.312668 -0.802507 
0.002740 0.916211 -0.390959 
-0.490149 0.855143 0.142027 
0.778929 0.536540 0.308108 
-0.145897 0.272847 0.946666 
-0.177502 0.914759 0.351622 
0.561374 0.603660 -0.559230 
-0.789026 0.328784 0.510489 
0.386659 0.900132 0.179435 
-0.114570 0.826240 -0.543684 
-0.354008 0.118627 -0.922776 
0.473314 0.509696 0.712012 
-0.481003 0.504210 -0.710458 
0.301914 0.523265 0.791635 
0.178225 0.875274 -0.439803 
-0.141368 0.981064 0.098149 
-0.291091 0.694511 -0.651605 
0.633434 0.653872 0.402577 
-0.576053 0.679684 -0.442319 
0.181268 0.978907 0.033294 
-0.641505 0.094878 0.755565 
0.848453 0.446820 -0.269564 
-0.467313 0.577308 0.663865 
-0.251949 0.296704 -0.916535 
-0.591344 0.793597 -0.109788 
-0.526962 0.761093 0.367752 
-0.417238 0.744058 -0.512980 
0.413637 0.779912 -0.458498 
0.047324 0.392656 0.913366 
0.183411 0.290402 0.934243 
-0.108337 0.549633 -0.822898 
